# .PCD v0.7 - Point Cloud Data file format
VERSION 0.7
FIELDS x y z
SIZE 4 4 4
TYPE F F F
COUNT 1 1 1
WIDTH 1426
HEIGHT 1
VIEWPOINT 0 0 0 1 0 0 0
POINTS 1426
DATA ascii
0.92675781 0.12164307 0.058349609
0.96697998 0.73684692 -0.7038269
0.48431396 0.93728638 -0.42160034
0.39208984 0.38693237 0.22097778
0.42376709 0.45169067 0.12454224
0.84481812 0.058410645 0.26748657
0.50424194 0.46133423 0.034423828
0.31018066 0.93695068 -0.24713135
0.03616333 0.80133057 0.1625061
0.81314087 0.86907959 -0.68222046
0.88757324 0.39169312 0.34451294
0.15841675 0.99597168 -0.15438843
0.25640869 0.82318115 -0.079589844
0.57635498 0.96368408 -0.54003906
0.33898926 0.66699219 -0.0059814453
0.62350464 0.52575684 0.22387695
0.25411987 0.27145386 0.47442627
0.94949341 0.062744141 -0.012237549
0.76870728 0.55038452 -0.3190918
0.89691162 0.11224365 -0.0091552734
0.21264648 0.63839722 0.78125
0.78933716 0.86495972 -0.65429688
0.60940552 0.14898682 0.24160767
0.65036011 0.96908569 -0.6194458
0.49511719 0.11843872 0.38644409
0.20031738 0.93051147 0.81784058
0.40618896 0.93835449 -0.34454346
0.80505371 0.25042725 -0.055480957
0.97277832 0.5458374 -0.51861572
0.35961914 0.55917358 0.081207275
0.81872559 0.62338257 0.48629761
0.48620605 0.96206665 -0.44827271
0.88272095 0.25134277 -0.13406372
0.7277832 0.12911987 0.14309692
0.20025635 0.36016846 0.4395752
0.66427612 0.18902588 0.43783569
0.31951904 0.99853516 -0.3180542
0.86383057 0.4375 -0.30133057
0.078308105 0.95855713 -0.036865234
0.74530029 0.096405029 0.15829468
0.42803955 0.22106934 0.14944458
0.92788696 0.94439697 -0.87228394
0.21191406 0.84033203 -0.052246094
0.015228271 0.75100708 0.23376465
0.93960571 0.15423584 -0.093841553
0.76428223 0.88674927 0.018463135
0.55532837 0.36105347 0.083618164
0.55780029 0.037322998 0.40487671
0.15444946 0.34057617 0.50497437
0.055877686 0.93035889 0.013763428
0.22198486 0.17370605 0.62335205
0.50588989 0.2258606 0.26824951
0.2772522 0.047332764 0.67541504
0.78988647 0.42657471 -0.21646118
0.35455322 0.26321411 0.38223267
0.34002686 0.55996704 0.472229
0.74926758 0.18664551 0.064086914
0.63885498 0.77960205 -0.41845703
0.99371338 0.55709839 -0.55081177
0.40560913 0.27679443 0.31759644
0.81503296 0.039367676 0.46582031
0.53799438 0.81719971 -0.35519409
0.34152222 0.63525391 0.023223877
0.79614258 0.76095581 -0.55709839
0.30303955 0.5307312 0.16622925
0.29501343 0.13214111 0.31436157
0.9364624 0.31533813 -0.25180054
0.68887329 0.80096436 -0.48983765
0.97702026 0.78067017 -0.75769043
0.26821899 0.92791748 -0.19613647
0.62820435 0.8500061 0.63394165
0.18173218 0.59710693 0.22116089
0.40270996 0.64657593 -0.049285889
0.98510742 0.10238647 -0.087493896
0.82223511 0.53707886 -0.35931396
0.0013122559 0.58639526 0.9850769
0.56497192 0.28417969 0.15084839
0.89013672 0.8611145 -0.75125122
0.84283447 0.93005371 -0.77288818
0.92221069 0.63113403 -0.55334473
0.60784912 0.38809204 0.35333252
0.72875977 0.72195435 -0.45071411
0.084716797 0.36752319 0.54776001
0.71194458 0.68164063 -0.39358521
0.519104 0.00091552734 0.47998047
0.37103271 0.91897583 0.48544312
0.10006714 0.97949219 -0.079559326
0.67471313 0.57836914 -0.25308228
0.43032837 0.093231201 0.47644043
0.22497559 0.63793945 0.13708496
0.96612549 0.80514526 0.74273682
0.29034424 0.89395142 -0.18429565
0.8609314 0.57522583 -0.43615723
0.24038696 0.35949707 0.40011597
0.54266357 0.21871948 0.23861694
0.47238159 0.49038696 0.72583008
0.77178955 0.015441895 0.21276855
0.72531128 0.01675415 0.25793457
0.14822388 0.42932129 0.42245483
0.9810791 0.37637329 -0.35745239
0.83117676 0.66741943 0.68902588
0.13619995 0.44943237 0.41436768
0.47286987 0.23153687 0.29559326
0.81369019 0.95709229 -0.77078247
0.96414185 0.81033325 -0.7744751
0.63214111 0.69839478 0.5663147
0.277771 0.15231323 0.56991577
0.13803101 0.94418335 -0.082214355
0.96200562 0.92141724 -0.88342285
0.53918457 0.093902588 0.36691284
0.017791748 0.54595947 0.36987305
0.24865723 0.33383179 0.41751099
0.094787598 0.71899414 0.18621826
0.75543213 0.52792358 -0.28335571
0.23831177 0.50363159 0.25805664
0.57843018 0.06149292 0.030303955
0.74832153 0.58584595 -0.33416748
0.0042419434 0.73873901 0.25701904
0.71807861 0.27609253 0.0058288574
0.48059082 0.63143921 -0.11203003
0.18609619 0.099639893 0.32897949
0.12319946 0.61743164 0.2593689
0.032958984 0.0053710938 0.96166992
0.19052124 0.54995728 0.25952148
0.56045532 0.26196289 0.17758179
0.45999146 0.95394897 0.72113037
0.63275146 0.87695313 -0.50970459
0.85125732 0.37567139 -0.22692871
0.25692749 0.3604126 0.38265991
0.97561646 0.35061646 -0.32623291
0.071228027 0.35049438 0.75521851
0.61578369 0.90301514 -0.51879883
0.65472412 0.39877319 -0.053497314
0.15112305 0.49472046 0.35415649
0.49951172 0.36627197 0.13421631
0.65911865 0.99121094 0.19274902
0.0058898926 0.77935791 0.2147522
0.92147827 0.30429077 -0.22576904
0.63803101 0.96121216 -0.59924316
0.20553589 0.76986694 0.024597168
0.86804199 0.65090942 0.21807861
0.82537842 0.40847778 -0.2338562
0.94940186 0.43978882 -0.38919067
0.17752075 0.19268799 0.62979126
0.39724731 0.72824097 -0.12548828
0.31674194 0.060241699 0.042419434
0.73864746 0.37930298 -0.11795044
0.79632568 0.44790649 -0.24423218
0.52676392 0.46414185 0.0090942383
0.80554199 0.7947998 -0.6003418
0.86422729 0.81143188 0.20205688
0.73739624 0.2984314 -0.035827637
0.74835205 0.59658813 -0.34494019
0.16650391 0.48748779 0.3460083
0.80883789 0.36236572 -0.17120361
0.53720093 0.84194946 0.9335022
0.66052246 0.9173584 -0.57788086
0.0045471191 0.15570068 0.8397522
0.0066833496 0.41296387 0.58035278
0.19876099 0.68029785 0.12094116
0.65969849 0.12677002 0.97817993
0.76132202 0.61404419 -0.37536621
0.30636597 0.40707397 0.28656006
0.28439331 0.47683716 0.23876953
0.83798218 0.20422363 -0.042205811
0.4609375 0.010864258 0.74224854
0.88067627 0.53952026 -0.42019653
0.62509155 0.82791138 -0.45300293
0.40292358 0.94143677 -0.34436035
0.59341431 0.1605835 0.2460022
0.4128418 0.72595215 0.2833252
0.50143433 0.53536987 -0.036804199
0.79223633 0.17559814 0.032165527
0.37356567 0.80535889 -0.17892456
0.72363281 0.95617676 -0.67980957
0.91101074 0.74490356 0.68093872
0.46160889 0.14758301 0.39080811
0.1222229 0.25054932 0.62722778
0.75924683 0.90124512 -0.66049194
0.92352295 0.6541748 -0.57769775
0.14352417 0.91033936 0.56878662
0.22592163 0.32928467 0.4447937
0.37835693 0.90328979 -0.28164673
0.56341553 0.6239624 -0.18737793
0.58276367 0.99545288 -0.57821655
0.25866699 0.35922241 0.70480347
0.27276611 0.61572266 0.11151123
0.36383057 0.53610229 0.10006714
0.026733398 0.26043701 0.71282959
0.75854492 0.21865845 0.022796631
0.81832886 0.049499512 0.85488892
0.67401123 0.81503296 -0.48904419
0.18411255 0.43823242 0.37765503
0.87832642 0.59069824 -0.46902466
0.93533325 0.21743774 -0.152771
0.63943481 0.41967773 0.88690186
0.72109985 0.031921387 0.24697876
0.59625244 0.10174561 0.30200195
0.42297363 0.14682007 0.4302063
0.81072998 0.11880493 0.070465088
0.37670898 0.31188965 0.11343384
0.1859436 0.1418457 0.67221069
0.43896484 0.4979248 0.063110352
0.63571167 0.28186035 0.082427979
0.65447998 0.63427734 -0.28875732
0.80966187 0.21594238 0.8692627
0.7845459 0.43789673 -0.22244263
0.70544434 0.44433594 -0.14978027
0.43063354 0.87988281 -0.31051636
0.75628662 0.60845947 -0.36474609
0.64648438 0.13302612 0.21875
0.78396606 0.74569702 -0.52966309
0.014709473 0.86569214 0.11959839
0.47695923 0.23583984 0.28720093
0.42474365 0.23059082 0.34466553
0.8883667 0.6104126 0.093994141
0.98651123 0.90170288 -0.88821411
0.010162354 0.72567749 0.26416016
0.14746094 0.60440063 0.24813843
0.28479004 0.93527222 -0.22006226
0.87319946 0.99819946 0.48614502
0.89590454 0.15872192 -0.054626465
0.055511475 0.32443237 0.62005615
0.094512939 0.19000244 0.71548462
0.77761841 0.61856079 -0.3961792
0.10617065 0.646698 0.41110229
0.27185059 0.79177856 -0.06362915
0.73364258 0.47875977 -0.21240234
0.80429077 0.82614136 -0.63043213
0.22186279 0.78115845 -0.0030212402
0.97286987 0.9621582 0.28085327
0.025146484 0.51101685 0.46383667
0.93777466 0.38296509 -0.32073975
0.23571777 0.51815796 0.24612427
0.43151855 0.061248779 0.50723267
0.60702515 0.53134155 0.97344971
0.80227661 0.94946289 -0.7517395
0.80944824 0.21713257 -0.026580811
0.85479736 0.3883667 -0.24316406
0.86160278 0.47940063 -0.34100342
0.23568726 0.47119141 0.75106812
0.95373535 0.71450806 -0.66824341
0.33895874 0.20571899 0.45532227
0.50393677 0.057800293 0.43826294
0.11843872 0.066314697 0.81524658
0.44403076 0.31420898 0.19137573
0.10418701 0.21072388 0.68508911
0.42218018 0.49685669 0.080963135
0.73892212 0.33468628 -0.073608398
0.92098999 0.52310181 -0.4440918
0.68798828 0.61703491 0.046508789
0.14492798 0.07925415 0.77581787
0.91696167 0.99307251 -0.91003418
0.96340942 0.057434082 -0.020843506
0.45709229 0.62265015 -0.079742432
0.30334473 0.41604614 0.05255127
0.40237427 0.52557373 0.072052002
0.28610229 0.17028809 0.54360962
0.85192871 0.80963135 -0.66156006
0.41247559 0.22442627 0.36309814
0.28210449 0.063720703 0.049713135
0.014526367 0.10519409 0.88027954
0.11761475 0.0078430176 0.87454224
0.71246338 0.49951172 -0.2119751
0.85507202 0.88015747 -0.73522949
0.30447388 0.70800781 0.4420166
0.98376465 0.89440918 -0.87817383
0.75354004 0.30670166 -0.060241699
0.044219971 0.77481079 0.18096924
0.85083008 0.027954102 0.12121582
0.15570068 0.67150879 0.2973938
0.78787231 0.047607422 0.16452026
0.068572998 0.12405396 0.80737305
0.54541016 0.18933105 0.26525879
0.019378662 0.28634644 0.6942749
0.58679199 0.76385498 0.35040283
0.67837524 0.60894775 -0.287323
0.041992188 0.66372681 0.29428101
0.75018311 0.99282837 -0.74301147
0.18817139 0.044799805 0.76702881
0.0097351074 0.42199707 0.029022217
0.88119507 0.19107056 -0.072265625
0.50344849 0.81634521 -0.3197937
0.69943237 0.36962891 -0.069061279
0.54656982 0.51516724 -0.061737061
0.42510986 0.80612183 0.15637207
0.64874268 0.97348022 -0.6222229
0.8001709 0.79772949 -0.59790039
0.23110962 0.57623291 0.19265747
0.33499146 0.98635864 -0.3213501
0.81912231 0.75079346 0.79428101
0.26309204 0.21466064 0.52224731
0.31860352 0.53262329 0.14877319
0.60751343 0.84857178 -0.45608521
0.37826538 0.58081055 0.040924072
0.44741821 0.37741089 0.64025879
0.26690674 0.9201355 -0.18704224
0.52444458 0.029052734 0.44650269
0.034820557 0.54208374 0.4230957
0.69592285 0.95907593 -0.65499878
0.24127197 0.94284058 0.40414429
0.19088745 0.21255493 0.59655762
0.81970215 0.028259277 0.15203857
0.67352295 0.34237671 -0.015899658
0.76953125 0.9442749 -0.71380615
0.27944946 0.51174927 0.15353394
0.5553894 0.83840942 -0.39379883
0.61273193 0.65151978 -0.26425171
0.25421143 0.37640381 0.36938477
0.45666504 0.66207886 -0.1187439
0.84753418 0.96575928 0.84848022
0.20440674 0.47537231 0.32022095
0.092987061 0.10836792 0.79864502
0.4786377 0.55557251 -0.034210205
0.95043945 0.8218689 -0.77230835
0.74029541 0.78479004 0.5579834
0.099761963 0.64578247 0.25445557
0.72753906 0.12109375 0.15136719
0.12902832 0.72467041 0.14630127
0.024291992 0.53131104 0.44439697
0.29589844 0.13497925 0.74996948
0.41586304 0.66259766 -0.078460693
0.35848999 0.9541626 -0.31265259
0.64205933 0.078918457 0.27902222
0.99102783 0.91421509 -0.90524292
0.68313599 0.70944214 0.2852478
0.1322937 0.75183105 0.11587524
0.25842285 0.60153198 0.14004517
0.60806274 0.10742188 0.28451538
0.6730957 0.42300415 -0.096099854
0.4178772 0.44317627 0.60653687
0.091674805 0.13195801 0.77636719
0.75997925 0.42175293 -0.18173218
0.92129517 0.10046387 -0.021759033
0.63262939 0.018005371 0.34936523
0.84347534 0.14041138 0.27478027
0.26062012 0.24331665 0.49606323
0.65374756 0.30917358 0.037078857
0.29547119 0.14056396 0.56396484
0.70861816 0.6491394 -0.35775757
0.52972412 0.37289429 0.11459351
0.39746094 0.55950928 0.043029785
0.93743896 0.02355957 0.039001465
0.16955566 0.82653809 0.00390625
0.14648438 0.086853027 0.7666626
0.74609375 0.28390503 0.75424194
0.70065308 0.46252441 -0.16317749
0.8536377 0.71026611 -0.56390381
0.37030029 0.24084473 0.38885498
0.95571899 0.69625854 -0.65197754
0.72506714 0.67028809 0.89138794
0.10214233 0.21453857 0.68331909
0.043121338 0.36050415 0.59637451
0.59823608 0.018035889 0.38372803
0.75161743 0.89550781 -0.64712524
0.95874023 0.19790649 0.95297241
0.49234009 0.29415894 0.21350098
0.628479 0.90756226 -0.53604126
0.21984863 0.34750366 0.43264771
0.73141479 0.89767456 -0.62908936
0.089172363 0.01171875 0.54919434
0.1322937 0.96395874 -0.096252441
0.72369385 0.18756104 0.088745117
0.54470825 0.7928772 -0.33758545
0.89175415 0.15841675 -0.050170898
0.88882446 0.94577026 0.012390137
0.65435791 0.040374756 0.30526733
0.93435669 0.63284302 -0.56719971
0.28610229 0.90985107 -0.19595337
0.29925537 0.81555176 -0.11480713
0.31411743 0.87268066 0.94381714
0.26086426 0.90545654 -0.1663208
0.12347412 0.69708252 0.17944336
0.74411011 0.44747925 -0.19158936
0.86004639 0.38583374 -0.24588013
0.023498535 0.44924927 0.70407104
0.19827271 0.87487793 -0.073150635
0.062255859 0.26419067 0.67355347
0.61953735 0.409729 -0.029266357
0.75128174 0.2479248 0.00079345703
0.72088623 0.3326416 0.14724731
0.028717041 0.083740234 0.88754272
0.29443359 0.6126709 0.092895508
0.074188232 0.1395874 0.78622437
0.99725342 0.55136108 -0.5486145
0.14221191 0.20721436 0.20788574
0.99346924 0.65054321 -0.64401245
0.0084533691 0.33551025 0.65603638
0.48730469 0.12661743 0.38607788
0.94366455 0.73022461 -0.67388916
0.82885742 0.1439209 0.90841675
0.35836792 0.66061401 -0.018981934
0.65048218 0.93203735 -0.58251953
0.011169434 0.47067261 0.51815796
0.096557617 0.4201355 0.48330688
0.70281982 0.02355957 0.26721191
0.28155518 0.41430664 0.30413818
0.75384521 0.22640991 0.019744873
0.7215271 0.83901978 -0.56054688
0.1539917 0.27841187 0.56759644
0.98196411 0.2868042 0.68762207
0.35324097 0.81045532 -0.16369629
0.40228271 0.25927734 0.33843994
0.72210693 0.9387207 -0.66082764
0.85388184 0.77218628 -0.62606812
0.44921875 0.35241699 0.65005493
0.80517578 0.48608398 -0.29125977
0.63296509 0.23831177 0.12872314
0.93994141 0.8147583 -0.75469971
0.15310669 0.0440979 0.80279541
0.76986694 0.54614258 0.40692139
0.6050415 0.12194824 0.27301025
0.37939453 0.25616455 0.36444092
0.95736694 0.52267456 -0.4800415
0.3293457 0.37380981 0.29684448
0.43054199 0.43936157 0.12731934
0.66586304 0.50613403 -0.17199707
0.328125 0.20236206 0.46951294
0.95324707 0.89761353 -0.8508606
0.019744873 0.6484375 0.33181763
0.69458008 0.50698853 0.47470093
0.084686279 0.031188965 0.88412476
0.41467285 0.43856812 0.14675903
0.81399536 0.93566895 -0.74966431
0.55883789 0.028991699 0.41217041
0.18701172 0.74523926 0.26037598
0.78564453 0.57733154 -0.36297607
0.86099243 0.24996948 -0.11096191
0.21429443 0.87435913 -0.088653564
0.89468384 0.35317993 -0.24786377
0.35635376 0.89981079 0.043640137
0.49014282 0.4147644 0.095092773
0.65454102 0.97576904 -0.63031006
0.14584351 0.96826172 -0.11410522
0.80148315 0.0054626465 0.1930542
0.96749878 0.80419922 0.29129028
0.84176636 0.64492798 -0.48669434
0.90240479 0.53683472 -0.4392395
0.68997192 0.73065186 -0.42062378
0.59997559 0.042602539 0.35742188
0.98815918 0.5553894 0.46972656
0.89569092 0.55966187 -0.45535278
0.89578247 0.94198608 -0.83776855
0.024078369 0.46279907 0.51312256
0.55007935 0.20248413 0.24743652
0.62896729 0.31903076 0.47854614
0.39645386 0.69708252 -0.093536377
0.40106201 0.66424561 -0.065307617
0.67068481 0.99935913 -0.67004395
0.26190186 0.35116577 0.38693237
0.08493042 0.48208618 0.18603516
0.81512451 0.9234314 -0.73855591
0.45715332 0.24435425 0.29849243
0.32449341 0.4382019 0.23730469
0.49700928 0.23361206 0.26937866
0.44641113 0.55532837 0.44116211
0.28213501 0.35501099 0.362854
0.57513428 0.42034912 0.0045166016
0.40264893 0.29785156 0.29949951
0.39797974 0.30426025 0.29776001
0.77355957 0.87683105 0.30657959
0.47964478 0.030181885 0.49017334
0.29974365 0.83627319 -0.13601685
0.36437988 0.34692383 0.28869629
0.25881958 0.7644043 -0.023223877
0.5645752 0.59161377 0.59243774
0.74993896 0.080108643 0.16995239
0.33343506 0.38647461 0.28009033
0.65518188 0.4654541 -0.12063599
0.98571777 0.67095947 -0.65667725
0.079772949 0.35165405 0.86456299
0.36911011 0.13934326 0.49154663
0.23623657 0.44488525 0.31887817
0.65435791 0.019195557 0.32644653
0.94647217 0.59490967 -0.54138184
0.37182617 0.33486938 0.68310547
0.070373535 0.68051147 0.24911499
0.83053589 0.050140381 0.11932373
0.049865723 0.57254028 0.37759399
0.4463501 0.97747803 -0.42382813
0.99230957 0.42541504 0.28652954
0.94207764 0.5980835 -0.54016113
0.24395752 0.51876831 0.23727417
0.39447021 0.15487671 0.45065308
0.74780273 0.73672485 -0.48452759
0.79638672 0.049377441 0.96078491
0.81652832 0.17611694 0.0073547363
0.72653198 0.45870972 -0.1852417
0.79882813 0.60760498 -0.40643311
0.87716675 0.93151855 -0.8086853
0.82727051 0.5196228 0.13519287
0.2159729 0.67514038 0.10888672
0.24145508 0.066253662 0.69229126
0.45565796 0.89080811 -0.34646606
0.69073486 0.72821045 -0.41894531
0.54376221 0.093933105 0.61065674
0.58544922 0.50564575 -0.091094971
0.45303345 0.26187134 0.28509521
0.057739258 0.97705078 -0.034790039
0.87597656 0.97576904 -0.85174561
0.48526001 0.43399048 0.94482422
0.47555542 0.790802 -0.26635742
0.33129883 0.12579346 0.54290771
0.37088013 0.6204834 0.0086364746
0.80517578 0.28598022 -0.091156006
0.73266602 0.24438477 0.096832275
0.048065186 0.15435791 0.7975769
0.99789429 0.35275269 -0.35064697
0.014038086 0.20559692 0.78036499
0.54568481 0.95843506 -0.50411987
0.38925171 0.68475342 0.74887085
0.061401367 0.038299561 0.90029907
0.57669067 0.41723633 0.006072998
0.43997192 0.50369263 0.056335449
0.121521 0.72717285 0.15130615
0.37393188 0.018615723 0.90142822
0.58712769 0.67367554 -0.26080322
0.045227051 0.35079956 0.60397339
0.73141479 0.52331543 -0.25473022
0.36941528 0.59680176 0.033782959
0.82397461 0.29495239 0.28359985
0.03616333 0.35284424 0.61099243
0.98965454 0.8885498 -0.87820435
0.55450439 0.59729004 -0.15179443
0.46173096 0.045715332 0.49255371
0.79446411 0.44799805 0.082366943
0.011108398 0.37918091 0.60971069
0.36251831 0.99908447 -0.36160278
0.28216553 0.49658203 0.22125244
0.23626709 0.64709473 0.11663818
0.6885376 0.75183105 0.47122192
0.66873169 0.25860596 0.072662354
0.69314575 0.022674561 0.28417969
0.89770508 0.89233398 -0.79003906
0.91802979 0.70623779 -0.62426758
0.5635376 0.37216187 0.16549683
0.54544067 0.37347412 0.081085205
0.74307251 0.30117798 -0.044250488
0.44186401 0.62710571 -0.068969727
0.59289551 0.60119629 -0.1940918
0.94866943 0.020935059 0.26431274
0.24087524 0.42892456 0.3302002
0.29824829 0.52999878 0.17175293
0.39511108 0.38000488 0.22488403
0.40112305 0.76144409 -0.16256714
0.8560791 0.20504761 0.28060913
0.12353516 0.57492065 0.30154419
0.21328735 0.021362305 0.76535034
0.82562256 0.033447266 0.14093018
0.12973022 0.43704224 0.43322754
0.96054077 0.8520813 0.89620972
0.79248047 0.962677 -0.75515747
0.54064941 0.044494629 0.41485596
0.80929565 0.21655273 -0.025848389
0.7975769 0.42300415 -0.22058105
0.61077881 0.84698486 0.2645874
0.5581665 0.76248169 -0.32064819
0.22210693 0.14254761 0.63534546
0.43200684 0.065002441 0.50299072
0.20053101 0.57476807 0.22470093
0.95684814 0.25460815 0.65396118
0.2043457 0.92843628 -0.13278198
0.26855469 0.29650879 0.43493652
0.8114624 0.73919678 -0.55065918
0.2310791 0.35165405 0.41726685
0.43707275 0.63195801 0.81628418
0.088562012 0.89907837 0.012359619
0.77655029 0.14428711 0.079162598
0.75878906 0.10745239 0.13375854
0.94937134 0.86672974 -0.81610107
0.96444702 0.084350586 0.098114014
0.5980835 0.98953247 -0.58761597
0.09564209 0.57226563 0.33209229
0.34896851 0.12512207 0.52590942
0.79980469 0.30105591 -0.1008606
0.11740112 0.52005005 0.82095337
0.69967651 0.2947998 0.0055236816
0.58843994 0.65176392 -0.24020386
0.58566284 0.042633057 0.3717041
0.50473022 0.29272461 0.20254517
0.88577271 0.29574585 0.81826782
0.53393555 0.41558838 0.050476074
0.54931641 0.71783447 -0.26715088
0.28594971 0.51242065 0.20162964
0.084960938 0.97827148 -0.063232422
0.865448 0.802948 0.79260254
0.11968994 0.64224243 0.23806763
0.88696289 0.24441528 -0.13137817
0.81088257 0.95419312 -0.76507568
0.21838379 0.17678833 0.60482788
0.048217773 0.69546509 0.9647522
0.036895752 0.14108276 0.82202148
0.48526001 0.12643433 0.38830566
0.74981689 0.035308838 0.21487427
0.82260132 0.69692993 -0.51953125
0.36288452 0.0055541992 0.13397217
0.14547729 0.72286987 0.13165283
0.2482605 0.11947632 0.63226318
0.0029907227 0.84286499 0.15414429
0.40628052 0.30438232 0.28933716
0.83300781 0.11486816 0.55612183
0.20162964 0.36846924 0.42990112
0.024108887 0.68966675 0.28622437
0.99237061 0.095825195 -0.088195801
0.52194214 0.22109985 0.25695801
0.12991333 0.067626953 0.71279907
0.55044556 0.77407837 -0.32452393
0.2250061 0.012115479 0.76287842
0.21508789 0.46154785 0.32336426
0.010986328 0.43109131 0.55792236
0.66040039 0.91915894 0.55627441
0.14468384 0.16085815 0.69445801
0.42565918 0.21820068 0.35614014
0.99911499 0.92251587 -0.92163086
0.62893677 0.75500488 -0.38394165
0.11486816 0.89871216 0.22418213
0.91552734 0.24197388 -0.15750122
0.34967041 0.39984131 0.25048828
0.7265625 0.023193359 0.25024414
0.67767334 0.45755005 -0.13522339
0.25854492 0.82180786 0.56866455
0.51165771 0.15115356 0.33718872
0.27017212 0.97201538 -0.2421875
0.67562866 0.67977905 -0.35540771
0.19491577 0.9491272 -0.14404297
0.64068604 0.64431763 0.075775146
0.92266846 0.053344727 0.023986816
0.8614502 0.69354248 -0.55499268
0.35733032 0.59817505 0.044494629
0.5418396 0.12393188 0.33422852
0.40353394 0.19158936 0.33303833
0.73318481 0.53521729 -0.2684021
0.19354248 0.31005859 0.49639893
0.3321228 0.71304321 -0.045166016
0.04284668 0.69400024 0.26315308
0.14447021 0.10421753 0.22262573
0.5809021 0.74591064 -0.32681274
0.89035034 0.96212769 -0.85247803
0.46133423 0.63015747 -0.091491699
0.19418335 0.58105469 0.22476196
0.81219482 0.55831909 0.6569519
0.88269043 0.54232788 -0.42501831
0.34735107 0.69729614 -0.044647217
0.50238037 0.57263184 -0.075012207
0.25460815 0.98300171 -0.23760986
0.61682129 0.33221436 0.61425781
0.14697266 0.92150879 -0.068481445
0.45202637 0.88165283 -0.3336792
0.27865601 0.28158569 0.4397583
0.43676758 0.74249268 -0.17926025
0.22180176 0.96292114 0.59655762
0.44247437 0.21057129 0.34695435
0.84963989 0.019958496 0.13040161
0.99395752 0.87435913 -0.86831665
0.55395508 0.86877441 -0.42272949
0.41583252 0.14331055 0.82507324
0.77670288 0.66287231 -0.4395752
0.085235596 0.16305542 0.75170898
0.63278198 0.40072632 -0.033508301
0.20565796 0.044036865 0.75030518
0.53045654 0.28286743 0.24182129
0.66308594 0.16445923 0.17245483
0.88586426 0.98214722 -0.86801147
0.60073853 0.45581055 -0.056549072
0.95895386 0.1423645 -0.10131836
0.31970215 0.68664551 0.14434814
0.82940674 0.89794922 -0.72735596
0.92623901 0.82461548 -0.75085449
0.62466431 0.90438843 -0.52905273
0.02911377 0.25308228 0.71780396
0.81747437 0.8230896 0.98672485
0.62380981 0.82019043 -0.44400024
0.9329834 0.91394043 -0.84692383
0.23727417 0.29638672 0.46633911
0.048736572 0.45144653 0.49981689
0.41796875 0.032897949 0.028930664
0.86553955 0.34011841 -0.20565796
0.087493896 0.45855713 0.45394897
0.62637329 0.41809082 -0.044464111
0.24307251 0.41134644 0.34558105
0.74588013 0.41717529 0.29980469
0.69815063 0.65692139 -0.35507202
0.94171143 0.23635864 -0.17807007
0.50854492 0.91455078 -0.4230957
0.45599365 0.77151489 -0.22750854
0.85061646 0.50073242 0.49502563
0.35754395 0.69625854 -0.05380249
0.014038086 0.22061157 0.76535034
0.1362915 0.23751831 0.62619019
0.52514648 0.97976685 -0.50491333
0.8895874 0.16079712 0.37976074
0.021026611 0.51480103 0.46417236
0.34460449 0.72994995 -0.074554443
0.025390625 0.057434082 0.91717529
0.88751221 0.0753479 0.037139893
0.60787964 0.83105469 0.87255859
0.59515381 0.44607544 -0.041229248
0.65692139 0.77392578 -0.43084717
0.55270386 0.19186401 0.25543213
0.75372314 0.91281128 -0.66653442
0.55334473 0.82263184 0.30880737
0.86810303 0.93719482 -0.80529785
0.58822632 0.26272583 0.14904785
0.24838257 0.087677002 0.66394043
0.2097168 0.3374939 0.45278931
0.73184204 0.93780518 0.4864502
0.84054565 0.77957153 -0.62011719
0.45431519 0.96768188 -0.42199707
0.27508545 0.92913818 -0.20422363
0.3822937 0.84463501 -0.22692871
0.28857422 0.074707031 0.030151367
0.7197876 0.99017334 -0.70996094
0.63925171 0.37738037 -0.01663208
0.40911865 0.16860962 0.42227173
0.046051025 0.28546143 0.66848755
0.43408203 0.4418335 0.39505005
0.093811035 0.35897827 0.54721069
0.86929321 0.7505188 -0.61981201
0.38156128 0.63052368 -0.012084961
0.058532715 0.94641113 -0.0049438477
0.17663574 0.075500488 0.29733276
0.31546021 0.39346313 0.29107666
0.71295166 0.74200439 -0.45495605
0.24838257 0.78024292 -0.028625488
0.036895752 0.19412231 0.76898193
0.9894104 0.15753174 0.42617798
0.49606323 0.57446289 -0.070526123
0.22866821 0.83755493 -0.066223145
0.077026367 0.31793213 0.6050415
0.74417114 0.43798828 -0.18215942
0.68069458 0.75491333 0.30053711
0.33288574 0.80581665 -0.13870239
0.44436646 0.5553894 0.00024414063
0.046142578 0.89083862 0.063018799
0.5401001 0.13946533 0.32043457
0.90856934 0.77410889 0.53555298
0.047576904 0.010467529 0.94195557
0.46035767 0.088623047 0.45101929
0.78900146 0.87527466 -0.66427612
0.72564697 0.33276367 -0.058410645
0.079071045 0.50982666 0.59088135
0.58078003 0.35293579 0.06628418
0.98812866 0.19595337 -0.18408203
0.82736206 0.88284302 -0.71020508
0.22424316 0.10571289 0.67004395
0.95669556 0.78030396 0.091217041
0.57843018 0.061553955 0.36001587
0.66415405 0.54177856 -0.20593262
0.82879639 0.77972412 -0.60852051
0.27578735 0.88720703 -0.16299438
0.81600952 0.054351807 0.82321167
0.89074707 0.58865356 -0.47940063
0.22454834 0.33456421 0.44088745
0.83172607 0.71743774 -0.54916382
0.8520813 0.80282593 -0.65490723
0.19659424 0.84710693 0.19070435
0.40270996 0.15307617 0.44421387
0.89871216 0.70443726 -0.60314941
0.56109619 0.46398926 -0.025085449
0.95343018 0.54074097 -0.49417114
0.16226196 0.99658203 0.3494873
0.3651123 0.66900635 -0.034118652
0.48391724 0.023040771 0.49304199
0.46337891 0.44128418 0.095336914
0.69430542 0.62451172 -0.31881714
0.51757813 0.033081055 0.66555786
0.44152832 0.96203613 -0.40356445
0.74923706 0.15945435 0.091308594
0.65994263 0.32589722 0.014160156
0.24313354 0.99349976 -0.2366333
0.99356079 0.46795654 0.43692017
0.40588379 0.21484375 0.37927246
0.11056519 0.54483032 0.34460449
0.10961914 0.61669922 0.27368164
0.57849121 0.48175049 -0.060241699
0.19274902 0.93759155 0.14916992
0.43737793 0.52020264 0.042419434
0.78045654 0.92044067 -0.70089722
0.8979187 0.79400635 -0.69192505
0.057220459 0.60223389 0.34054565
0.89620972 0.92791748 0.48995972
0.13827515 0.77148438 0.090240479
0.89282227 0.69985962 -0.59268188
0.5640564 0.22052002 0.21542358
0.68890381 0.91519165 -0.60409546
0.0075073242 0.92056274 0.60128784
0.83013916 0.2383728 -0.068511963
0.50613403 0.39477539 0.099090576
0.6446228 0.67279053 -0.31741333
0.18048096 0.60476685 0.2147522
0.81759644 0.23919678 0.74298096
0.57962036 0.56414795 -0.14376831
0.011505127 0.31393433 0.67456055
0.43161011 0.62808228 -0.059692383
0.01663208 0.53778076 0.44558716
0.55209351 0.36114502 0.12167358
0.54614258 0.84753418 -0.39367676
0.64019775 0.40759277 -0.047790527
0.46182251 0.35241699 0.1857605
0.65332031 0.93551636 -0.58883667
0.72503662 0.37527466 0.086608887
0.31170654 0.023406982 0.66488647
0.83435059 0.74243164 -0.57678223
0.95767212 0.10632324 -0.063995361
0.93893433 0.12057495 -0.059509277
0.49185181 0.26571655 0.87240601
0.99353027 0.12838745 -0.12191772
0.76376343 0.63378906 -0.39755249
0.50726318 0.50018311 -0.0074462891
0.98934937 0.69363403 -0.6829834
0.83853149 0.81185913 0.62423706
0.62054443 0.94018555 -0.56072998
0.72885132 0.60003662 -0.32888794
0.33480835 0.40539551 0.25979614
0.9095459 0.12789917 -0.037445068
0.14508057 0.98257446 0.58569336
0.58120728 0.22451782 0.1942749
0.77178955 0.098419189 0.12979126
0.51345825 0.68280029 -0.19625854
0.63391113 0.79507446 -0.4289856
0.59176636 0.88995361 0.84423828
0.19421387 0.7281189 0.077667236
0.20834351 0.5211792 0.27047729
0.82373047 0.18865967 -0.012390137
0.78924561 0.86181641 -0.65106201
0.63973999 0.96298218 0.58999634
0.715271 0.43139648 -0.14666748
0.17453003 0.26821899 0.55725098
0.525177 0.11825562 0.35656738
0.8130188 0.10919189 0.077789307
0.17260742 0.34674072 0.57049561
0.64260864 0.75048828 -0.39309692
0.29150391 0.062225342 0.64627075
0.10516357 0.8012085 0.09362793
0.068115234 0.21359253 0.71829224
0.4050293 0.048156738 0.66329956
0.093994141 0.7444458 0.16156006
0.15246582 0.78921509 0.058319092
0.97967529 0.55697632 -0.53665161
0.5269165 0.5675354 -0.094451904
0.92596436 0.9152832 0.73724365
0.45001221 0.63082886 -0.080841064
0.065917969 0.5227356 0.41134644
0.28161621 0.87042236 -0.15203857
0.24734497 0.96740723 -0.2147522
0.91247559 0.28829956 0.44729614
0.85256958 0.26480103 -0.11737061
0.81936646 0.25610352 -0.075469971
0.72232056 0.26135254 0.016326904
0.52984619 0.47155762 -0.0014038086
0.69338989 0.52127075 0.15457153
0.61242676 0.54006958 -0.15249634
0.22988892 0.11264038 0.6574707
0.99612427 0.086090088 -0.082214355
0.088562012 0.28292847 0.62850952
0.53713989 0.434021 0.75079346
0.32077026 0.92254639 -0.24331665
0.064300537 0.65090942 0.28479004
0.79650879 0.32052612 -0.11703491
0.33410645 0.63174438 0.03414917
0.93804932 0.27850342 0.40838623
0.27728271 0.25769043 0.46502686
0.96685791 0.15335083 -0.12020874
0.35647583 0.84545898 -0.20193481
0.42471313 0.024353027 0.55093384
0.28494263 0.60931396 0.96386719
0.47918701 0.010284424 0.51052856
0.24404907 0.387146 0.36880493
0.94772339 0.22756958 -0.17529297
0.20993042 0.17745972 0.61260986
0.88986206 0.33102417 0.50238037
0.31390381 0.97235107 -0.28625488
0.0085144043 0.49386597 0.49761963
0.8710022 0.89596558 -0.76696777
0.88470459 0.6293335 -0.51403809
0.057312012 0.9045105 0.1192627
0.25640869 0.8500061 -0.10641479
0.50665283 0.36645508 0.12689209
0.37164307 0.88101196 -0.25265503
0.44171143 0.0024414063 0.55584717
0.56396484 0.73168945 0.4211731
0.026153564 0.93667603 0.03717041
0.29187012 0.67654419 0.031585693
0.54040527 0.28921509 0.17037964
0.3394165 0.84524536 -0.18466187
0.21929932 0.33996582 0.99707031
0.22567749 0.66824341 0.1060791
0.27130127 0.22219849 0.50650024
0.93249512 0.082733154 -0.015228271
0.37802124 0.98617554 -0.36419678
0.98376465 0.11224365 0.10089111
0.29937744 0.85079956 -0.150177
0.33547974 0.22579956 0.4387207
0.73812866 0.50228882 -0.24041748
0.25311279 0.53045654 0.21643066
0.62997437 0.47369385 0.20446777
0.65948486 0.55325317 -0.21273804
0.99346924 0.11422729 -0.10769653
0.50930786 0.30743408 0.18325806
0.69689941 0.47540283 -0.17230225
0.90411377 0.010375977 0.95928955
0.47497559 0.84390259 -0.31887817
0.47888184 0.3795166 0.14160156
0.66842651 0.10626221 0.22531128
0.54870605 0.44522095 0.006072998
0.10900879 0.48278809 0.48995972
0.91067505 0.33895874 -0.24963379
0.43161011 0.17501831 0.39337158
0.91921997 0.14752197 -0.066741943
0.42700195 0.15408325 0.41891479
0.40072632 0.50350952 0.78771973
0.29562378 0.77575684 -0.071380615
0.56747437 0.26501465 0.16751099
0.14718628 0.49777222 0.3550415
0.19042969 0.17160034 0.63796997
0.67337036 0.46444702 0.80502319
0.33300781 0.52706909 0.1399231
0.82907104 0.11566162 0.055267334
0.6423645 0.50976563 -0.15213013
0.24417114 0.49365234 0.26217651
0.50003052 0.37811279 0.067382813
0.48358154 0.91900635 -0.40258789
0.65188599 0.56195068 -0.21383667
0.32751465 0.57806396 0.094421387
0.58062744 0.62237549 -0.20300293
0.91275024 0.60287476 0.92446899
0.056793213 0.049804688 0.8934021
0.3572998 0.70559692 -0.062896729
0.95715332 0.48666382 -0.44381714
0.025482178 0.58694458 0.38757324
0.18862915 0.5657959 0.26623535
0.033935547 0.52944946 0.43661499
0.92959595 0.72103882 -0.65063477
0.91555786 0.49221802 -0.40777588
0.18139648 0.65673828 0.16186523
0.70132446 0.35827637 0.90734863
0.52420044 0.91018677 -0.43438721
0.45605469 0.96624756 -0.42230225
0.71438599 0.96746826 -0.68185425
0.21511841 0.45297241 0.33190918
0.29272461 0.12652588 0.026306152
0.24209595 0.99353027 -0.23562622
0.61083984 0.44046021 -0.051300049
0.5177002 0.25506592 0.22723389
0.63317871 0.73562622 -0.36880493
0.1960144 0.57736206 0.44802856
0.38519287 0.64660645 -0.031799316
0.98306274 0.093444824 -0.076507568
0.45718384 0.61877441 -0.075958252
0.86331177 0.97845459 -0.84176636
0.47692871 0.77935791 0.98959351
0.97262573 0.78347778 -0.75610352
0.76797485 0.97290039 -0.74087524
0.15371704 0.91156006 -0.0652771
0.17614746 0.95126343 -0.12741089
0.86987305 0.03024292 0.35650635
0.78713989 0.27233887 -0.05947876
0.9694519 0.46835327 -0.43780518
0.55593872 0.9753418 -0.53128052
0.86547852 0.66567993 -0.53115845
0.60656738 0.99905396 0.95706177
0.83428955 0.97561646 -0.80990601
0.65206909 0.56314087 -0.21520996
0.78359985 0.43643188 -0.22003174
0.50949097 0.77325439 -0.28274536
0.30014038 0.96389771 0.14315796
0.8822937 0.96838379 -0.85067749
0.89685059 0.75976563 -0.65661621
0.10061646 0.16555786 0.73382568
0.57867432 0.40374756 0.017578125
0.57080078 0.13650513 0.75796509
0.88076782 0.22210693 -0.10287476
0.55465698 0.52987671 -0.084533691
0.058044434 0.49435425 0.44760132
0.47601318 0.10009766 0.42388916
0.69796753 0.46212769 0.091552734
0.15203857 0.48132324 0.36663818
0.39041138 0.18487549 0.42471313
0.098937988 0.37579346 0.52526855
0.2532959 0.70132446 0.045379639
0.0019836426 0.0069885254 0.24691772
0.33425903 0.43563843 0.23010254
0.18716431 0.82751465 -0.014678955
0.53570557 0.081512451 0.38278198
0.25866699 0.30639648 0.43493652
0.85665894 0.33200073 0.40805054
0.53262329 0.023956299 0.44342041
0.68496704 0.6071167 -0.29208374
0.69485474 0.65945435 -0.35430908
0.21060181 0.33706665 0.45233154
0.77368164 0.048492432 0.87197876
0.75234985 0.67553711 -0.42788696
0.86294556 0.98007202 -0.84301758
0.43988037 0.57943726 -0.019317627
0.24584961 0.56512451 0.18902588
0.43057251 0.5279541 0.16369629
0.94503784 0.61880493 -0.56384277
0.79364014 0.43231201 -0.22595215
0.27249146 0.24639893 0.48110962
0.05178833 0.32296753 0.62524414
0.34152222 0.60739136 0.89154053
0.15478516 0.43545532 0.40975952
0.62963867 0.69570923 -0.3253479
0.77975464 0.49688721 -0.27664185
0.48980713 0.42126465 0.088928223
0.36651611 0.40127563 0.9175415
0.31137085 0.38925171 0.29937744
0.61514282 0.34555054 0.039306641
0.070281982 0.22793579 0.70178223
0.0206604 0.56164551 0.41769409
0.53234863 0.28607178 0.18701172
0.018829346 0.35662842 0.62454224
0.032409668 0.87063599 0.096954346
0.45996094 0.77786255 -0.23782349
0.87252808 0.025085449 0.10238647
0.013153076 0.94552612 0.25698853
0.10195923 0.41397095 0.48406982
0.88189697 0.93185425 -0.81375122
0.92407227 0.51092529 -0.43499756
0.59066772 0.73822021 -0.32888794
0.91204834 0.71054077 0.34701538
0.86663818 0.94586182 -0.8125
0.51785278 0.70065308 -0.21850586
0.97302246 0.64233398 -0.61535645
0.82910156 0.22317505 -0.052276611
0.061981201 0.32971191 0.13253784
0.53042603 0.54421997 -0.074645996
0.50112915 0.27362061 0.22525024
0.61184692 0.37374878 0.014404297
0.027435303 0.94107056 0.031494141
0.99758911 0.67160034 0.9112854
0.52963257 0.79470825 -0.32434082
0.74200439 0.86346436 -0.60546875
0.53640747 0.12390137 0.33969116
0.88751221 0.48266602 -0.37017822
0.14624023 0.98770142 0.92913818
0.32009888 0.16308594 0.51681519
0.10171509 0.83776855 0.060516357
0.61004639 0.94320679 -0.55325317
0.71984863 0.38323975 -0.10308838
0.94766235 0.48660278 0.98519897
0.20727539 0.69552612 0.097198486
0.34292603 0.83718872 -0.18011475
0.22631836 0.39959717 0.37408447
0.48800659 0.0069580078 0.5050354
0.77096558 0.99642944 0.82751465
0.13165283 0.36767578 0.50067139
0.092651367 0.48348999 0.42385864
0.51931763 0.56951904 -0.08883667
0.09777832 0.52078247 0.38143921
0.59509277 0.74203491 0.49203491
0.26879883 0.5607605 0.17044067
0.21014404 0.009979248 0.77987671
0.89535522 0.29800415 -0.19335938
0.67297363 0.021575928 0.30545044
0.38882446 0.047332764 0.29229736
0.89157104 0.60458374 -0.49615479
0.89355469 0.36114502 -0.25469971
0.59887695 0.53219604 -0.131073
0.58908081 0.95864868 -0.54772949
0.39675903 0.43963623 0.74649048
0.49755859 0.79547119 -0.29302979
0.05065918 0.93139648 0.017944336
0.57058716 0.64822388 -0.21881104
0.41159058 0.6869812 -0.098571777
0.0018005371 0.62203979 0.60379028
0.02142334 0.50930786 0.4692688
0.83459473 0.95831299 -0.79290771
0.38952637 0.88549805 -0.27502441
0.93835449 0.92837524 -0.86672974
0.69955444 0.10131836 0.43319702
0.27664185 0.37695313 0.34640503
0.24035645 0.48876953 0.27087402
0.73303223 0.01574707 0.2512207
0.66943359 0.057830811 0.2727356
0.77938843 0.64923096 0.35162354
0.56204224 0.71765137 -0.2796936
0.17095947 0.70837402 0.1206665
0.93112183 0.67724609 -0.60836792
0.93740845 0.93630981 -0.87371826
0.27676392 0.71810913 0.083557129
0.18572998 0.98254395 -0.16827393
0.68597412 0.58251953 -0.26849365
0.50643921 0.49127197 0.0022888184
0.97558594 0.58071899 -0.55630493
0.96759033 0.57073975 0.85839844
0.039520264 0.85739136 0.10308838
0.33905029 0.53115845 0.12979126
0.21487427 0.36938477 0.41574097
0.83139038 0.5413208 -0.37271118
0.0061035156 0.68112183 0.38867188
0.7454834 0.70504761 -0.45053101
0.83172607 0.64987183 -0.4815979
0.45767212 0.17672729 0.36560059
0.30453491 0.42910767 0.26635742
0.94308472 0.0032653809 0.72106934
0.25875854 0.91360474 -0.17236328
0.62142944 0.5526123 -0.17404175
0.87976074 0.18206787 -0.061828613
0.98602295 0.25558472 -0.24160767
0.46060181 0.13031006 0.78973389
0.73687744 0.82577515 -0.56265259
0.14855957 0.77072144 0.080718994
0.55584717 0.47555542 -0.031402588
0.70123291 0.13967896 0.15908813
0.76852417 0.67797852 0.17633057
0.65692139 0.82080078 -0.47772217
0.4140625 0.17404175 0.41189575
0.39151001 0.39678955 0.21170044
0.45825195 0.39120483 0.15054321
0.69287109 0.6282959 0.37442017
0.75762939 0.40682983 -0.16445923
0.57214355 0.70956421 -0.28170776
0.98065186 0.86688232 -0.84753418
0.36105347 0.16558838 0.47335815
0.15420532 0.69229126 0.93475342
0.031158447 0.58837891 0.38046265
0.92376709 0.75738525 -0.68115234
0.65460205 0.51626587 -0.17086792
0.52865601 0.42752075 0.043823242
0.23873901 0.83370972 0.80615234
0.58694458 0.73956299 -0.32650757
0.52871704 0.72457886 -0.2532959
0.034576416 0.14956665 0.81585693
0.95629883 0.7210083 -0.67730713
0.45159912 0.94699097 0.61575317
0.99563599 0.64437866 -0.64001465
0.99261475 0.58551025 -0.578125
0.83096313 0.71102905 -0.54199219
0.65463257 0.27304077 0.07232666
0.96813965 0.038146973 0.44381714
0.63504028 0.57073975 -0.20578003
0.53378296 0.93911743 -0.47290039
0.52471924 0.80807495 -0.33279419
0.003112793 0.28610229 0.71078491
0.3223877 0.58856201 0.072814941
0.048522949 0.50531006 0.44616699
0.4750061 0.57067871 -0.045684814
0.69470215 0.31344604 -0.0081481934
0.31256104 0.76638794 -0.078948975
0.50015259 0.16693115 0.60098267
0.37988281 0.14712524 0.47299194
0.99197388 0.1421814 -0.13415527
0.76376343 0.80307007 -0.5668335
0.11114502 0.9944458 -0.10559082
0.16549683 0.95843506 0.85421753
0.2645874 0.47613525 0.25927734
0.80587769 0.5461731 -0.35205078
0.76916504 0.371521 -0.14068604
0.44140625 0.028289795 0.53030396
0.096130371 0.25228882 0.66928101
0.36877441 0.098083496 0.53314209
0.88919067 0.69158936 -0.58078003
0.91888428 0.34857178 -0.26745605
0.17935181 0.46377563 0.35687256
0.37136841 0.59222412 0.92053223
0.99755859 0.97665405 -0.97421265
0.72067261 0.0087280273 0.27059937
0.39230347 0.57400513 0.033691406
0.30471802 0.96646118 -0.2711792
0.87609863 0.59283447 0.21459961
0.20675659 0.63793945 0.15530396
0.68145752 0.35949707 -0.04095459
0.94015503 0.73217773 -0.67233276
0.11871338 0.077148438 0.80413818
0.13046265 0.8364563 0.66522217
0.20541382 0.40533447 0.38925171
0.14434814 0.010223389 0.84542847
0.36639404 0.32849121 0.30511475
0.17410278 0.47052002 0.3553772
0.49505615 0.93939209 0.7746582
0.097412109 0.1428833 0.75970459
0.96670532 0.11013794 -0.076843262
0.84838867 0.58859253 -0.4369812
0.62191772 0.90405273 -0.52597046
0.97906494 0.28619385 0.37918091
0.72460938 0.31265259 -0.037261963
0.68276978 0.64782715 -0.33059692
0.59231567 0.54211426 -0.13442993
0.93621826 0.7437439 -0.67996216
0.69094849 0.22201538 0.56481934
0.065643311 0.46337891 0.47097778
0.60623169 0.55969238 -0.16592407
0.88290405 0.87353516 -0.75643921
0.98709106 0.99130249 -0.97839355
0.64083862 0.11535645 0.69338989
0.64147949 0.18969727 0.16882324
0.55053711 0.40228271 0.047180176
0.69204712 0.84405518 -0.53610229
0.15585327 0.92233276 -0.078186035
0.0011291504 0.67822266 0.26147461
0.10308838 0.99902344 -0.10211182
0.96444702 0.86190796 -0.82635498
0.028198242 0.73410034 0.23770142
0.159729 0.27984619 0.5604248
0.14785767 0.10037231 0.34793091
0.46536255 0.50692749 0.027709961
0.77825928 0.54312134 -0.32138062
0.71075439 0.72503662 -0.43579102
0.91912842 0.76043701 -0.67956543
0.062896729 0.8848877 0.1053772
0.26092529 0.21377563 0.52529907
0.98501587 0.61724854 -0.6022644
0.87625122 0.1512146 -0.02746582
0.11331177 0.53738403 0.3493042
0.82000732 0.35031128 0.99734497
0.72451782 0.89126587 -0.61578369
0.78723145 0.088012695 0.12475586
0.18780518 0.47732544 0.33486938
0.55651855 0.83261108 -0.38912964
0.89239502 0.26119995 0.37316895
0.29367065 0.52822876 0.17810059
0.040771484 0.74072266 0.21850586
0.76956177 0.2729187 -0.042480469
0.56506348 0.066711426 0.3682251
0.57354736 0.079742432 0.79489136
0.50631714 0.6270752 -0.13339233
0.52270508 0.49319458 -0.015899658
0.81622314 0.023956299 0.15982056
0.72915649 0.55175781 -0.28091431
0.99920654 0.22128296 0.4317627
0.96072388 0.020935059 0.018341064
0.013763428 0.6706543 0.31558228
0.82662964 0.38058472 -0.20721436
0.94741821 0.1774292 -0.12484741
0.34579468 0.81594849 0.32897949
0.97195435 0.13879395 -0.11074829
0.92459106 0.48712158 -0.41171265
0.20330811 0.8527832 -0.056091309
0.98251343 0.44223022 -0.42474365
0.76596069 0.43737793 0.74090576
0.64022827 0.72305298 -0.36328125
0.00076293945 0.4831543 0.51608276
0.90737915 0.066986084 0.025634766
0.65209961 0.12243652 0.22546387
0.28192139 0.84951782 0.23657227
0.62182617 0.87893677 -0.50076294
0.21218872 0.36904907 0.41876221
0.51794434 0.44467163 0.037384033
0.34832764 0.67315674 -0.021484375
0.82910156 0.75665283 0.92803955
0.63140869 0.12982178 0.23876953
0.52545166 0.017150879 0.45739746
0.95300293 0.072265625 -0.025268555
0.95507813 0.021759033 0.023162842
0.86538696 0.13653564 0.61749268
0.68927002 0.23614502 0.074584961
0.89047241 0.79806519 -0.6885376
0.69754028 0.93084717 -0.62838745
0.54055786 0.96762085 -0.50817871
0.86276245 0.31375122 0.055023193
0.53826904 0.49816895 -0.036437988
0.29718018 0.64068604 0.062133789
0.55804443 0.95419312 -0.51223755
0.84613037 0.85430908 -0.70043945
0.5017395 0.87133789 0.34405518
0.1300354 0.81344604 0.056518555
0.1776123 0.72622681 0.096160889
0.0042114258 0.35739136 0.63839722
0.36099243 0.78713989 -0.14813232
0.81848145 0.4331665 0.048553467
0.56774902 0.18301392 0.24923706
0.5116272 0.42382813 0.064544678
0.22906494 0.9803772 -0.20944214
0.34799194 0.51278687 0.13922119
0.31851196 0.1918335 0.62774658
0.87069702 0.83493042 -0.70562744
0.32720947 0.80236816 -0.12957764
0.70025635 0.99874878 -0.69900513
0.73944092 0.27053833 -0.009979248
0.93292236 0.13339233 0.60522461
0.56137085 0.30407715 0.134552
0.56436157 0.8527832 -0.41714478
0.67584229 0.95385742 -0.62969971
0.94216919 0.81820679 -0.76037598
0.2427063 0.58435059 0.89520264
0.9118042 0.64505005 -0.55685425
0.70507813 0.41903687 -0.12411499
0.074981689 0.77380371 0.1512146
0.99710083 0.90829468 -0.90539551
0.30984497 0.56460571 0.32800293
0.23742676 0.062072754 0.70050049
0.97381592 0.44818115 -0.42199707
0.79629517 0.73867798 -0.53497314
0.55059814 0.90020752 -0.45080566
0.88739014 0.14157104 0.26062012
0.17218018 0.39050293 0.43731689
0.098693848 0.7182312 0.18307495
0.6267395 0.10122681 0.27203369
0.073486328 0.48291016 0.44360352
0.23635864 0.64941406 0.034057617
0.57644653 0.6567688 -0.23321533
0.40432739 0.36364746 0.23202515
0.87719727 0.66946411 -0.54666138
0.27185059 0.092895508 0.63525391
0.54733276 0.5246582 0.79101563
0.23620605 0.14978027 0.61401367
0.21575928 0.4352417 0.34899902
0.51239014 0.61071777 -0.12310791
0.21673584 0.52520752 0.25805664
0.23144531 0.68395996 0.71380615
0.65896606 0.62893677 -0.28790283
0.073730469 0.86236572 0.063903809
0.066253662 0.42825317 0.50549316
0.87179565 0.10049438 0.027709961
0.79260254 0.9133606 0.46530151
0.050598145 0.11978149 0.82962036
0.29193115 0.57144165 0.1366272
0.039886475 0.12915039 0.83096313
0.63110352 0.55566406 -0.18676758
0.77145386 0.81335449 0.14672852
0.68893433 0.17703247 0.1340332
0.64346313 0.12722778 0.22930908
0.50094604 0.98239136 -0.4833374
0.99731445 0.27359009 -0.27090454
0.88528442 0.017089844 0.3553772
0.73666382 0.1126709 0.15066528
0.79959106 0.67059326 -0.47018433
0.6328125 0.40866089 -0.041473389
0.42901611 0.81808472 -0.24710083
0.31948853 0.2522583 0.3145752
0.53146362 0.2116394 0.25689697
0.051177979 0.77459717 0.17422485
0.73138428 0.42077637 -0.15216064
0.35058594 0.035430908 0.61398315
0.65328979 0.99694824 0.23110962
0.66235352 0.67993164 -0.34228516
0.056091309 0.052581787 0.8913269
0.95324707 0.28536987 -0.23861694
0.57293701 0.19985962 0.22720337
0.3263855 0.99658203 0.12142944
0.98666382 0.23361206 -0.22027588
0.77868652 0.34365845 -0.12234497
0.3739624 0.63031006 -0.0042724609
0.75061035 0.42840576 -0.17901611
0.65921021 0.53292847 0.63665771
0.38085938 0.79220581 -0.17306519
0.69613647 0.86105347 -0.55718994
0.36450195 0.47436523 0.16113281
0.93988037 0.690979 -0.63085938
0.89654541 0.69750977 0.15829468
0.33496094 0.17816162 0.48687744
0.87820435 0.54171753 -0.41992188
0.40234375 0.34060669 0.25704956
0.24411011 0.042358398 0.71353149
0.63064575 0.88885498 0.62854004
0.61584473 0.28631592 0.097839355
0.12347412 0.32952881 0.54699707
0.269104 0.14602661 0.58486938
0.82244873 0.18939209 -0.01184082
0.44613647 0.46395874 0.96389771
0.55160522 0.78326416 -0.33486938
0.83184814 0.77114868 -0.60299683
0.25042725 0.76431274 -0.01473999
0.33776855 0.86138916 -0.19915771
0.29046631 0.30767822 0.93005371
0.77880859 0.37155151 -0.15036011
0.81634521 0.39242554 -0.20877075
0.6940918 0.91574097 -0.60983276
0.72189331 0.83691406 -0.55880737
0.55096436 0.75247192 0.053955078
0.12045288 0.4413147 0.43823242
0.11834717 0.066314697 0.81533813
0.091491699 0.4901123 0.418396
0.12719727 0.45092773 0.421875
0.073150635 0.03125 0.36767578
0.17098999 0.48876953 0.34024048
0.35577393 0.78353882 -0.13931274
0.44454956 0.036315918 0.51913452
0.8135376 0.49368286 -0.30722046
0.90957642 0.31799316 0.54968262
0.70773315 0.50201416 -0.20974731
0.33102417 0.65704346 0.011932373
0.39370728 0.078125 0.52816772
0.72601318 0.025939941 0.24804688
0.85379028 0.31185913 0.23937988
0.67242432 0.86465454 -0.53707886
0.89920044 0.20544434 -0.10464478
0.82620239 0.53829956 -0.36450195
0.60028076 0.55532837 -0.15560913
0.55978394 0.56005859 0.15057373
0.20800781 0.23974609 0.55224609
0.9597168 0.57263184 -0.53234863
0.26049805 0.5814209 0.15808105
0.072021484 0.91928101 0.0086975098
0.88287354 0.5887146 0.84298706
0.97982788 0.3248291 -0.30465698
0.15942383 0.13821411 0.70236206
0.98043823 0.93978882 -0.92022705
0.63827515 0.20910645 0.15261841
0.80969238 0.63256836 0.098236084
0.97402954 0.80114746 -0.775177
0.63754272 0.63171387 -0.26925659
0.2696228 0.60339355 0.12698364
0.032775879 0.43252563 0.53469849
0.72955322 0.16952515 0.89706421
0.95059204 0.44613647 -0.39672852
0.39685059 0.51541138 0.087738037
0.8996582 0.071594238 0.028747559
0.44839478 0.53991699 0.011688232
0.40002441 0.5149231 0.28713989
0.51184082 0.037384033 0.45077515
0.89071655 0.45443726 -0.34515381
0.65130615 0.11865234 0.2300415
0.87628174 0.62390137 -0.50018311
0.32080078 0.90655518 0.13320923
0.96188354 0.068664551 -0.030548096
0.11392212 0.94934082 -0.063262939
0.82577515 0.65908813 -0.48486328
0.43881226 0.75823975 -0.197052
0.83157349 0.99465942 0.42221069
0.69134521 0.82171631 -0.51306152
0.33743286 0.40905762 0.25350952
0.81985474 0.76473999 -0.58459473
0.73565674 0.89401245 -0.62966919
0.24227905 0.11755371 0.061187744
0.033355713 0.67391968 0.29272461
0.68203735 0.56494141 -0.24697876
0.60403442 0.69445801 -0.29849243
0.4871521 0.35604858 0.15679932
0.19134521 0.31021118 0.72735596
0.71096802 0.88635254 -0.59732056
0.98690796 0.28915405 -0.27606201
0.61907959 0.2741394 0.10678101
0.80944824 0.89675903 -0.70620728
0.47073364 0.99465942 0.92504883
